# This PCD file was generated using the MATLAB® pcwrite function
# from Computer Vision Toolbox®.
# .PCD v.7 - Point Cloud Data file format
VERSION .7
FIELDS x y z
SIZE 8 8 8
TYPE F F F
COUNT 1 1 1
WIDTH 823
HEIGHT 1
VIEWPOINT 0 0 0 1 0 0 0
POINTS 823
DATA ascii
18.005170992915279 12.710587289537930 8.707111015275503
16.730089256700321 9.405112836738773 10.959200617713419
14.456419572132900 8.893802315080077 13.820705404244110
15.174872983425960 6.099638383939617 13.027785485390011
13.696588367781260 11.687966246220530 14.574067098789159
5.997024138226841 16.040206996972689 19.079718713911230
8.652095504033721 15.084370872982610 18.031672360198019
8.990439877161288 18.036249897413288 17.865384281665978
11.130927884242130 14.128534748992520 16.616329593272120
11.749314215861370 20.032292797853891 16.184980079487509
8.452810114939215 42.271514414899620 18.125947309788561
8.294313878837920 45.162948125393413 18.199019808653610
5.680621501821427 44.144821067286543 19.176300583519591
6.407871540089267 43.776400292787443 -18.945689405301771
9.395873778775329 44.506302957468051 -17.655523799926520
9.401535368159257 41.822897259327704 -17.652509664002459
11.862590702382761 19.651233256849491 -16.102139812589879
9.056800358988477 17.763569061316169 -17.831834789888440
8.607700936217565 14.864145315510189 -18.052906948995471
6.005020409228347 15.875904865782839 -19.077203531995998
11.042033552371800 13.852385765237530 -16.675534766379911
15.775871870642931 14.812661731023480 -12.293161978820050
13.586806491288780 14.332523748130511 -14.676465994398059
13.949847002195860 17.231947493936492 -14.331843333353071
14.236175487939850 17.591724295081899 14.047464973902949
13.968863647568250 14.639845270651220 14.313308950487169
16.340316729656571 15.151155792309920 11.532303061008911
14.368945118046890 54.528019554905299 13.911627543569670
13.557267833983291 51.796146557881627 14.703756445007230
15.343838357610220 51.787911224745493 12.828350991923280
5.765891030889305 74.120704807976978 -1.149179087372900
9.142676414961040 70.104038358648950 3.787020567465472
8.618327919618912 69.439942534937586 -6.102396048712150
4.571338207480519 75.052019179324475 1.893510283732736
7.610636463130266 72.271152841324636 1.346584950248719
2.882945515444653 77.060352403988489 -0.574589543686450
7.326404571238956 65.505169009456864 12.506954925278110
7.326404571238930 65.505169009456864 -12.506954925278130
4.580066931774541 70.294060862085459 -8.557350141800120
11.398713118880400 64.744706354717451 -10.138704228709990
11.743082990776070 65.179084169173606 9.042098646674120
5.034603182044873 70.890262669495925 7.592106758346007
14.697342884035150 65.179084169173606 1.909884345593140
14.626612507356709 65.044557466414361 -3.118888894304879
9.511347081591209 70.408173218000712 -1.239926493541068
4.309163959809452 74.719971267468793 -3.051198024356073
7.265917087961873 71.862979998742276 -3.662996501736246
2.285669103740260 77.526009589662237 0.946755141866368
3.805318231565135 76.135576420662318 0.673292475124359
1.441472757722328 78.530176201994237 -0.287294771843225
6.108219299151529 73.679417075502030 1.624630880824358
5.283330712182811 74.702391094100932 0.388685870037716
6.857007311220779 72.578028768986712 2.840265425599104
8.401183652156252 71.213248476544294 2.574318468584177
6.745797060950514 73.253468403274127 0.099551986881308
4.324418273166976 75.590528605982740 -0.861884315529674
10.777227360116830 62.821059479392702 13.377868583556660
7.498640512040800 62.772352250746088 15.510068905183941
3.729405971366743 65.509811823356557 14.002038583551730
3.863533038370738 62.664665449670807 16.899317632178359
3.727078483617170 67.958949187174639 11.449707011709950
3.727078483617154 67.958949187174639 -11.449707011709959
3.729405971366726 65.509811823356557 -14.002038583551739
7.498640512040770 62.772352250746088 -15.510068905183950
3.863533038370718 62.664665449670807 -16.899317632178370
10.777227360116800 62.821059479392702 -13.377868583556690
2.325481618592309 70.294967945722306 -9.422302394645730
5.953765126102400 67.900690736850535 -10.533089075316010
8.049041295475329 67.611196760023873 -9.417822462893202
9.420787532037638 65.216313762418153 -11.393249801855079
6.689563969361281 70.002059724800304 -7.430245194223634
10.015960062930301 67.101904748903678 -8.126586314322799
12.773101175386040 62.376047424928238 -12.142964659906159
12.955840072317400 62.607304715349159 11.603967308005050
9.624314506672546 65.477285315890498 10.875744207763519
8.442930690929851 68.110838472714349 8.370727756297173
6.181638305835035 68.199881349397415 10.051375429468930
10.486683487907730 67.692968798983870 6.441466169066471
7.249798441749277 70.703799441135686 5.818914622559677
2.573113135640808 70.647979499347841 8.991072029286103
17.366406343261431 62.607304715349159 0.955918398946618
16.658334427034010 62.663296518013262 4.802205924304423
13.456476863289319 65.434814399760597 5.573855218534171
15.174893610358961 62.663296518013262 8.383548862899151
11.970009415387191 67.692968798983870 2.860400597525877
15.041744207821919 62.492925120549899 -8.957879326108852
13.236133074861311 65.145426861668696 -6.742634822278025
16.585993703750951 62.557921068034673 -5.397307692548412
11.740593547160071 67.369328501260910 -4.657502084749207
17.360278517192199 62.569442037947887 -1.563675373590408
14.768759573338119 65.218693413523567 -0.608904810578090
12.073632281284860 67.731093076688353 -2.180247836646238
12.153022377171730 67.842324724541427 0.336326037439923
9.201980758062417 70.072021167509774 -3.726702809001942
9.490661442910024 70.421274000698332 1.295892412879553
2.154581979904724 77.359985633734397 -1.525599012178035
2.290033465887271 75.147030431042737 -4.278675070900062
4.500071541621259 72.598230885151139 -5.876694832116179
2.321706962302704 72.745992122687753 -6.872430942927198
6.463745939714180 72.079956901203190 -4.576797036534110
2.568204826665379 73.082245160037743 6.423367963468536
4.902174812192071 73.110560826589492 4.840770004331219
2.517301591022438 75.445131334747956 3.796053379173006
8.610580358715218 71.389252578138752 0.053638131938336
8.448587459279949 71.198039692190221 -2.468982625122402
7.638378232941662 72.269579105335254 -1.189363350365381
7.953007319054259 70.664238576650433 -4.889388094309085
6.545080664792556 73.022944661781239 -2.416861660071891
5.092574009734330 74.481326921893654 -2.126368382570177
5.795241222048259 73.300378069486285 -3.361564098763077
3.632958543980940 75.931489999371138 -1.831498250868124
7.350842437314776 -13.426826884197620 36.955180485507853
-20.933428186416471 -13.426826884198180 31.329089256134100
-8.436119270977041 -37.014616408797828 12.599602898040221
20.933428186410929 -31.329089256126739 13.426826884224001
-31.218687451095640 -21.285241677802439 13.127527184555570
31.329089256206451 -13.426826884308291 20.933428186237560
20.933428186424379 -13.426826884209980 31.329089256123758
12.335286492594779 -26.970053059411750 26.841327734503441
-2.776019402700241 -24.458381378076670 31.529053681854840
-6.522587698497582 -12.895579307562130 37.298254831435251
-17.422146365459930 -26.976062508097890 23.848706401240850
7.456549942823631 -37.073725688261028 13.036052162163619
-21.493813981803910 -32.165593130568681 10.168112337460849
-30.769022698168740 -11.994836878655709 22.569693393728620
31.556453076562160 -21.663904840405639 11.613157439967820
-1.300093664575474 -33.195119292140873 22.279895445822170
24.079779487111161 -22.637337572947050 22.532534187113530
-37.210395268317043 -10.393163731617181 10.361880189246831
37.024977565966019 -10.729279286954419 10.678648400202309
-24.894552469400040 -20.131553527624590 23.978776852574740
-31.428179270629510 -16.873220070469269 18.098727071802209
-24.988566780060101 -24.793588594521431 18.996037068741291
10.150053373426591 -32.844237301876227 20.450731576340580
14.439344125369640 -34.790156569684683 13.459207871151939
17.000737150000010 -29.791604639369108 20.577540154280591
-26.213165130977760 -12.888794606805771 27.326706293158821
-19.566667182590781 -20.611081940249800 28.148335049358309
5.626559095844647 -30.676663563880080 25.045639835356170
3.121740931896716 -35.631070813816763 17.907580954662620
-26.824991336155701 -27.200723579206830 11.854973893503630
-19.818404370131741 -30.118574387143081 17.323459658537370
-12.467190488078939 -20.759777588698341 31.837096683501649
-13.996955517943441 -13.419046307944010 34.985916621504529
-10.327385194322000 -26.298591682300561 28.314821560600201
-4.716482951304519 -18.946850514290400 34.910909091458613
-4.929814758033372 -35.549858400510431 17.660816051021929
-9.589380774265608 -30.819195405805200 23.626698887864990
-13.252008422368149 -32.794350088384498 18.679261347463900
-15.204333716548719 -35.143379156034747 11.565944283278469
22.808607664413810 -27.345286421760299 18.220940051370430
18.462090555468119 -25.150473119710799 25.032076294412711
30.390627322352209 -6.844936987020596 25.090965267014280
34.811018836682202 -6.844936987017332 18.475381853396680
25.090965267091850 -30.390627322298499 6.844936986974673
18.475381853485921 -34.811018836643207 6.844936986974675
18.475381853492490 -6.844936986967419 34.811018836641161
25.090965267097481 -6.844936986967205 30.390627322295540
-30.300756650857259 -25.242337156778660 6.684945076957684
-34.747369416604727 -18.650780514808410 6.690936724207230
-25.090965267093178 -6.844936986961103 30.390627322300460
-18.475381853487679 -6.844936986961113 34.811018836644948
-4.299036460609375 -39.246557512313331 6.420742821195454
-12.067496382414051 -37.594790238521881 6.403687017247440
3.747426977234313 -6.844936986960816 39.231410350989570
11.551039685792439 -6.844936986960818 37.679175273016313
-11.128799081570721 -6.574109320981865 37.854073057871993
-2.064691198058195 -29.203477284941609 27.256079948471321
-18.641864344787631 -35.013581159428000 5.150723985575616
2.334141117590006 -19.329583173895649 34.941650347393796
4.878445105578729 -26.245819047609711 29.788549566987680
10.090935112188230 -20.707082418142669 32.701524363900120
11.593637281361289 -37.702888363921559 6.639255458166818
26.584009077153219 -13.659460172783531 26.584009077016130
14.387162038783300 -13.659460172722300 34.733681718074550
-3.317799047350575 -6.559504098583226 39.318761995960273
-25.215339009132869 -30.621182387782611 5.150708423270935
3.798391715740541 -39.261615633217538 6.640608983834333
17.007134914700689 -20.651088987438939 29.737010862878378
-0.499753070365249 -37.798117373756263 13.078704037530070
0.420512170708938 -13.364115708877920 37.699118162987688
39.249197440280383 -5.467260351845509 5.441460646915147
37.386482384996462 -13.157818531474801 5.396542949150691
34.816350603193207 -18.788104293108411 5.901592766339311
30.373169506271889 -25.352039649443611 5.894454104428506
-34.501132960615131 -6.110599202902648 19.295914884978671
-29.957352478202981 -6.084902908525506 25.797885931281719
-37.469976184537863 -12.984422205946760 5.235035256880494
-39.296410188099301 -5.289624906028877 5.273703074222503
37.391108209108879 -5.422800564242285 13.133856644872591
-37.472838983681903 -5.251241523947160 12.969607950633010
26.685454670776700 -26.941233392145321 12.730136753262920
-34.514343446200222 -11.366780788232800 16.719937811573860
22.815477966893042 -18.279549316598299 27.300402402843229
34.700719445651082 -16.390250011171290 11.279171244307459
-34.656485973847829 -16.043795548847289 11.896408439700441
34.570570117545891 -12.217127685073409 15.988039351570160
28.208873268898980 -22.461767724168311 17.312665567081449
28.012388186155370 -18.232521206414649 21.974558198031719
31.829992386800189 -17.761438992359210 16.473700222167551
-21.330184770215858 -23.745097840632830 24.107954613366211
-25.032804467933040 -22.544746907541359 21.566015319897090
-21.348542270587160 -26.059608597139650 21.567022792164391
-28.356725476357390 -18.630740623152800 21.184700930723750
-28.442670187456649 -21.006445418836861 18.701435584090660
-28.057820576423271 -16.193650786425209 23.463254423490550
-31.206603404015649 -14.484156453015560 20.404828969191250
-31.432216601477400 -19.145491189185471 15.667350001692380
-28.293392255636260 -23.194985014106731 16.170236680301439
11.313710618753220 -30.096123787584691 23.795445245474792
13.635466664514240 -31.456503414024560 20.604911337768030
14.747683188549329 -28.534983309157820 23.838215066341771
12.363533113353830 -34.006529369969087 17.049895559719221
15.821996932280991 -32.500311267688929 17.128750976388272
8.858928354480861 -35.179881871319843 16.849190762854342
10.994560712845070 -36.084930539259332 13.304035182653889
17.761690459055430 -33.200382695283871 13.500254455242491
19.070105042837181 -30.726339766316919 17.094533268062850
-23.655092820704830 -13.203466575273600 29.429661626875220
-23.079082958141520 -16.888363081396541 27.966749036579920
-20.351419290908161 -17.104151186817901 29.887583951484380
-25.685442294311422 -16.595189266262889 25.784834240215911
-22.310937020064461 -20.444926636520830 26.157732958857459
-28.589954170198691 -12.484987166350299 25.034766734182011
-18.586989653502560 -23.912682691272259 26.128669150188578
9.024721761767889 -28.963926643458521 26.070007287070830
7.916979000608231 -31.875894729202361 22.830871821935240
4.402364712273149 -33.367720477062669 21.615141557196530
6.669133502314013 -34.409135715166443 19.275216395580880
2.173782562424527 -32.091639239713949 23.778168342247280
0.914014229055622 -34.533643377095743 20.164126128487570
5.307673198885330 -36.479739912114347 15.526013995589000
-29.149458362076679 -24.349587326892731 12.546178846185899
-26.029409282080710 -26.120214112195530 15.498522400277130
-23.482796554372388 -28.857620514147211 14.689994339016140
-22.505490029914320 -27.581090727209041 18.242430820583941
-24.265639827613871 -29.813685369328152 11.059964642263910
-20.750669300028520 -31.284646875590919 13.808711848081019
-18.705515793948852 -28.678003173916728 20.680322586266669
-16.954216377052990 -17.189865432778721 31.891425224908449
-17.549698447023111 -13.487884446293990 33.317937916606951
-16.097659363499879 -20.789691054973311 30.143888904525689
-13.300981817834300 -17.178408670385409 33.585504130022649
-15.095201338401811 -24.108334047350290 28.123354270914820
-9.590528103805152 -16.997178323301291 34.915865006740418
-10.309414255711451 -13.220975418051299 36.316961824088708
-8.641129473995166 -19.967215719272350 33.565474929853067
-5.639653361113976 -15.978213142917530 36.233837005744689
-11.439966717253130 -23.617293242447921 30.188583120796920
-7.598930094624657 -22.854291796769608 31.936460939152550
-13.952087986944180 -26.785773343134039 26.227114150201839
-6.588214055877922 -25.519917428649499 30.088688562676570
-3.759662822714036 -21.780311696504000 33.338909509693522
-6.703978980724274 -36.396312656715587 15.177780478499219
-9.146740579930508 -34.381961533012870 18.281624307997781
-10.910725473521740 -35.119051298962198 15.735572278605090
-7.305216597993535 -33.393056273707550 20.773481474955041
-11.458167883328100 -31.911136299607179 21.222386723888079
-3.124747961972333 -34.480559643762781 20.033144692233599
-5.477430280218085 -32.199345125718899 23.091120813704389
-13.586859264973929 -29.071145492703572 23.880236273721259
-15.431358886963650 -30.068919387607981 21.394699792148540
-16.602943892130501 -31.585325581237370 18.075104189876690
-17.621416030378072 -32.836040160346627 14.535477051178541
-14.295257984825669 -34.129030418284593 15.193907044864501
-18.421721984143289 -33.787731868490873 10.910053334186710
-11.867025444855329 -36.221842697746332 12.130612025111390
21.943776745609089 -29.434784538938519 15.876525146203489
19.975444368273720 -28.670021927978631 19.468214976523299
20.749298443847959 -26.392821753563720 21.745930732108079
17.792007845551041 -27.564916330394510 22.882739651429411
23.522185915709969 -25.074451171867501 20.444524880987281
21.344637889323021 -23.976696692867311 23.864709897772109
15.452044312436520 -26.150560771796819 26.026571562923131
29.479400343237529 -3.439028355022216 26.816747916355929
31.983280481095491 -3.439521840235421 23.774763692012161
32.763265229255992 -6.879043680469194 21.891713934558041
34.204489118192797 -3.439521840234181 20.450490045641502
31.009175947138470 -10.184925134009150 23.123542906028419
33.230065896436670 -10.184925134006299 19.799746209637711
36.056722635891667 -3.439028355020167 16.973089470236250
26.816747916392028 -29.479400343207431 3.439028354998771
23.774763692051369 -31.983280481068821 3.439521840212378
21.891713934641810 -32.763265229209360 6.879043680424658
20.450490045684131 -34.204489118169498 3.439521840212380
23.123542906152011 -31.009175947068151 10.184925133942629
19.799746209769900 -33.230065896377432 10.184925133942629
16.973089470281309 -36.056722635872497 3.439028354998773
16.973089470284499 -3.439028354995114 36.056722635871338
20.450490045687140 -3.439521840208690 34.204489118168070
21.891713934647949 -6.879043680417267 32.763265229206809
23.774763692054069 -3.439521840208627 31.983280481067219
19.799746209779869 -10.184925133931911 33.230065896374782
23.123542906161340 -10.184925133931721 31.009175947064790
26.816747916394490 -3.439028354994992 29.479400343205629
-29.426173086307891 -26.885422752980389 3.357723979286164
-31.936231747427410 -23.849415719737099 3.358928554564203
-32.685904038123553 -22.055765767327909 6.721220354983516
-34.162905585344987 -20.532856345316041 3.361193493733881
-30.900076257244240 -23.369940269142649 9.951437511540540
-33.140879674131661 -20.063574647233679 9.956655875971043
-36.022853137942462 -17.060317662335379 3.361479212391050
-26.816747916392281 -3.439028354991902 29.479400343207999
-23.774763692051639 -3.439521840205509 31.983280481069350
-21.891713934643370 -6.879043680411012 32.763265229211179
-20.450490045684649 -3.439521840205508 34.204489118169882
-23.123542906155151 -10.184925133922681 31.009175947072372
-19.799746209773279 -10.184925133922700 33.230065896381518
-16.973089470281899 -3.439028354991905 36.056722635872873
-2.159712396876451 -39.811193120192250 3.225596711065272
-6.076780853777988 -39.404051616240167 3.223876565989629
-8.223893606146742 -38.611419689000712 6.444049424665121
-9.983927200483928 -38.600119916000580 3.217432137390296
-6.397776330038559 -38.311422623856693 9.555275192266325
-10.293640682040049 -37.456926451930457 9.540416747533705
-13.743268645425269 -37.427087225118143 3.214908741468141
1.882779586944302 -3.439028354991759 39.807388189046620
5.804297884998120 -3.439521840205363 39.426891140512922
7.687347642406485 -6.879043680410728 38.646906392371022
9.725546012587849 -3.439521840205369 38.646906392371001
5.575984597181592 -10.184925133922260 38.277612585182112
9.496670123904185 -10.184925133922270 37.497739745310568
13.494166421065909 -3.439028354991757 37.497739745310511
-16.317069653718342 -10.182476952695540 35.072358495778808
-12.625475130201380 -10.046388384774319 36.601467014203649
-14.875845764759370 -6.742955112489742 36.513582384736488
-8.868397146272843 -9.781947063058581 37.757978933523432
-13.282024598092990 -3.302959312370561 37.585611765533059
-9.991974234738864 -28.655227351156370 26.058363835412880
-5.860279268815725 -30.182551237355831 25.586532729715032
-6.234060848405097 -27.921331679888461 27.955959149936881
-1.687844566120958 -31.300405959318041 24.848253398084211
-2.428198953932271 -26.917880414331471 29.487819405184439
-13.681415216788761 -36.490440648275133 9.014796081633296
-16.993594106171429 -35.224603518634552 8.393151716881654
-15.416779528434491 -36.451011263459897 5.800570340549466
-20.133092514472160 -33.698808327608297 7.684323817729311
-17.029795909773949 -36.101389007532809 2.583736138063451
4.866911986925803 -16.460798705192900 36.129699737633267
6.245355624626012 -20.124078920920251 34.000248677611538
8.774941499875029 -17.172736920877160 35.044221174867239
3.629293560254300 -22.933037979799810 32.571520177963080
7.523781948934801 -23.599066050768030 31.408226886426910
-0.222053316907926 -22.004391473968958 33.402954624069892
1.056576633340732 -25.481458540322048 30.815237235962119
8.650782072502263 -26.743702245528350 28.459414772083690
11.282610507253720 -23.986320976159810 29.955951589010549
16.535103927905901 -34.964977973304613 10.200028571164591
13.081129962489840 -36.426520932709458 10.099135659858719
15.100439057845600 -36.415947976813328 6.771661734258162
9.568874444976949 -37.560157433909467 9.882871284657206
13.512310504122251 -37.500612393860678 3.334885958846242
27.863344157353421 -6.875175210463467 27.863344157283191
25.965924858337111 -10.303162075489730 28.628928148470401
28.628928148564381 -10.303162075515329 25.965924858223339
23.860527567048550 -13.601177509372370 29.080631423914429
29.080631424024801 -13.601177509421721 23.860527566885899
10.915577205424910 -13.601177509334200 35.998028752487123
13.033570030510919 -10.303162075454569 36.386410003455723
16.512951504841311 -10.303162075457781 34.945203008116970
15.079533194976840 -6.875175210432907 36.405213553560429
17.735971577720250 -13.601177509340401 33.172928902745561
-9.508023847486712 -3.301575567486370 38.713008288180092
-7.259205954803765 -6.599450188382610 38.778229917696073
-5.588348047329809 -3.296055638016826 39.470321923768267
-4.941276986746803 -9.769225376287771 38.472664928757418
-1.666008105447769 -3.293806176924500 39.829325719805198
-20.500409162764601 -34.249910902735877 2.583942094318470
-22.036472092674678 -32.978815898166800 5.176053428674194
-23.798114477425631 -32.046418681848174 2.583936225980985
-23.430499544218620 -31.495444061063111 7.684310244759471
-26.836765362924019 -29.548473940558601 2.583726392710861
9.745009242448472 -38.651120773703752 3.335504044977295
7.734294583818373 -38.673663265799703 6.672959338041214
5.828451646469050 -39.432221347531950 3.336015652978521
5.653622195532953 -38.345039280617023 9.884050185577504
1.908021592906109 -39.814975324175272 3.335734247391109
12.308728784395040 -17.281100299560190 33.909566461127831
13.609374627556390 -20.771178464397529 31.358300286843871
15.797077274592629 -17.264485878433639 32.440558046476553
14.752271779342960 -23.942128707318250 28.445472042901809
19.075095765271310 -17.133101240484411 30.701750648162388
-0.251615557833344 -39.456876323880337 6.564413896607002
1.657375221738062 -38.718060936613732 9.907814800244022
-2.410885339833462 -38.706818875078923 9.796414338058085
3.495874879911265 -37.624010039648113 13.122982008421859
-4.490384327860016 -37.594306909165290 12.903660954957550
-27.882813568058999 -28.057306303677791 5.944425955747734
-26.141427513862389 -29.045687325969631 8.542467133819430
-28.658514396182671 -26.309330976704270 9.300999171858862
0.215658141694704 -6.728558955063357 39.429429559493471
-1.455815179125938 -10.011127435353311 38.699584740281672
2.093133351731775 -10.148958682719480 38.634406425635959
-3.062685400907202 -13.179971993606600 37.641841424347390
3.900511259632427 -13.446609826884689 37.469649391339502
39.811856226649617 -2.746548766857342 2.733587952262528
39.348254987666209 -6.653690787901868 2.728215123022861
38.506674005266682 -9.358432554099176 5.445707173122316
38.493416861709953 -10.531183799599360 2.711264561524694
38.317315771463321 -8.136540627205669 8.098144733499096
37.304745559765273 -11.975334267933560 8.058986122666404
37.269754144074348 -14.270454893884541 2.705452382644830
36.031081242363861 -17.116753607501700 2.962745328095624
34.168760162370077 -20.584491939731521 2.962169809862151
32.755934891205790 -22.179204243915880 5.927188029972646
31.948194890217511 -23.886278090323191 2.959474899593765
33.320786743606561 -20.307907681461590 8.792837188372479
31.080867499164651 -23.596080197041861 8.786615063096773
29.438644197811481 -26.918669664341031 2.958273268250650
-35.894754356301313 -3.069546227337621 17.382302065374571
-34.006253972837790 -3.066688958326006 20.836747322954110
-32.388853097612497 -6.127949231968673 22.658560472028920
-31.759050931169760 -3.056984385425922 24.125038027980949
-32.787252674826021 -9.094930165285678 21.030412187082550
-30.472914693647411 -9.072538359452157 24.271185533938311
-29.226048932612031 -3.053446327268557 27.138799876707100
-37.309084591743677 -14.182565184791169 2.624305839295931
-38.523682920912243 -10.440902071884970 2.629324545814404
-38.572138913410967 -9.182001615808582 5.280234408122062
-39.369043905255452 -6.564148132113657 2.643912010381073
-37.437022917263249 -11.719106419380489 7.818682066463722
-38.422737200920771 -7.876105436726546 7.852398268774057
-39.823713427391162 -2.656520115345473 2.648523959244014
37.273219894914263 -2.718699768693407 14.258880729775870
38.495774383837727 -2.724458957661166 10.519154310569959
38.509031792066978 -5.471868861714472 9.333437257017067
39.349499682265147 -2.741237173519159 6.640965513148734
37.308212387123667 -8.097781807600359 11.938305897683650
-39.369812325867542 -2.651946003275748 6.556293865788656
-38.573597369653328 -5.296380282258224 9.166562676515063
-38.525140779150583 -2.637465599757077 10.433466949659021
-37.439169378844149 -7.842637561972968 11.696219975985780
-37.311228622430981 -2.632480004828060 14.175408182545141
1.413894057783120 -27.862930863749419 28.664575990378530
1.790218441069607 -30.096156139879650 26.287191424154429
5.270107004489440 -28.556635349378951 27.508989060245948
27.850229984355721 -27.990089477604560 6.396835959056898
28.670438757672631 -26.275976748493012 9.358360795999342
25.988042093008499 -28.776474142194289 9.825280329259900
29.241882583322450 -24.403488829868451 12.222191511613961
23.908313362597390 -29.256149032153601 13.132791987889100
1.382395984392392 -16.407015083335491 36.454063790343547
-2.159033117851634 -16.238575564970262 36.491741107402227
-1.195838068853309 -19.213202696820481 35.063125115666331
-36.127227737474179 -5.703058986010792 16.195631004677089
-36.164127139395333 -8.348378856032536 14.915106709464020
-34.600481713650019 -8.762176228723064 18.056324718864339
-35.999432412629183 -10.921554627934100 13.592661251958530
-32.766436926837557 -11.725451933624329 19.719896488185238
17.796588493247899 -22.980810614385291 27.480242192176050
20.754729612145830 -21.837002638048371 26.313237048023669
19.982147133528969 -19.534573105649478 28.620170840631541
23.527391925878010 -20.528038153567159 25.001228133128201
21.948864709978629 -15.907116837079069 29.414467550976848
1.315226870897661 -36.833138257203551 15.543166789193780
-0.908655465838234 -35.772289526608553 17.875054592973822
-2.724523586903221 -36.805561025201470 15.424901240444880
-27.622203200843021 -6.487948761667947 28.194331711005471
-28.223738683796071 -9.533625526900517 26.693266725047419
-25.747133304428079 -9.903432998400916 28.965618772660360
36.210668128415577 -16.021299464055328 5.666163305951262
36.191688270787907 -14.834734301542460 8.372113696412145
34.853097303606070 -17.637029361080991 8.613752555920907
35.969253995249190 -13.599996628793930 11.011484375639091
33.226879162603801 -19.083530986240810 11.480125245127430
-33.079323870100943 -14.166278389263370 17.466391107717701
-34.708088987585597 -13.753900751010001 14.358924137765531
-33.171065013464677 -16.522629888767270 15.055998036138750
-36.048548498700320 -13.260823237461530 11.164795010861191
-33.043097780568672 -18.724307853854150 12.552048195046639
-34.794204595614623 -17.393416707553861 9.318385655723649
-36.238189539507111 -14.584523148831730 8.607277900291638
-36.226714736855520 -15.869310275359391 5.982479435131178
33.044003612828462 -12.858623784865371 18.513496402019090
34.786330226776258 -9.557280057753799 17.279165393161591
36.157152909578940 -8.863183820273161 14.632299732929029
36.206473786471093 -6.151778849773938 15.850766617610510
35.900087478429263 -11.505995055068921 13.371451913190130
29.986689556417350 -22.139640583799650 14.513259237680620
27.540672661871731 -24.785655154639230 15.072576996646500
25.616711473263749 -25.008936389024289 17.842004467497311
24.835162465100140 -27.239924864373851 15.530651246752290
26.235339006675751 -22.628051288462210 19.991953669524680
24.769623292355281 -16.014685186458760 27.018429816818159
25.524596173706939 -18.335529820582881 24.744762391273849
27.392954226340581 -16.001341295367752 24.363560185975849
26.117964623912261 -20.491324770335179 22.314960508448479
29.752622664725180 -15.873360053587810 21.513200938320271
30.027070988264821 -18.060665162204511 19.292156727471841
31.676024804671940 -15.641777204868720 18.760708618811741
28.198133070725049 -20.410480746691789 19.704758218448301
30.104006201520079 -20.168263527550970 16.940775848083160
31.790054043633639 -19.772899426216711 14.086335279854421
33.362206142981137 -17.125559869795669 13.916836201241120
34.743313203014623 -14.348153318422151 13.675986745430141
33.300557700484013 -15.034556211090990 16.279892684080561
-0.000000000000002 -13.260502275066891 -37.738031332408497
-20.859716452907438 -31.578613304544920 -12.948487969613350
20.121190550143879 -32.016590826496582 -13.041301013564381
15.162488437860389 -15.519023831366219 -33.604445734547340
-15.162488437843709 -15.519023831348850 -33.604445734562887
-32.502780302749500 -11.490095920867191 -20.286618687040239
31.329089256209510 -13.426826884312471 -20.933428186230309
-6.564854204672919 -37.297122333697310 -12.877394314437440
-11.350070506268450 -29.240803564220901 -24.822393838110798
4.031445928599513 -32.333207326150649 -23.201531784816190
-23.318446817094461 -22.089122312039329 -23.839476566296579
6.951879754421054 -38.096141519665757 -10.017749179659569
19.694232196762901 -24.995355304046491 -24.235704257094770
-31.770288400551230 -21.386213436331332 -11.544634218301630
30.849911822133709 -22.577895876161119 -11.769515189875129
6.599342495216724 -24.459685426695160 -30.954359901164850
-37.185667681413427 -10.460060741120190 -10.383312468208819
36.857471544854363 -10.989238389289740 -10.989238389283940
-3.346543931810245 -23.278192294042949 -32.356241077525112
24.465887246558900 -11.519309165461250 -29.474154899200879
-24.746416084538950 -9.166858164404902 -30.059666195709070
31.505634622854242 -18.243323635247911 -16.570336725115538
25.855767651485010 -24.336012664124159 -18.418406451072510
26.088959596077380 -19.645815485162348 -23.095628386127469
25.905490629402379 -27.747035042780379 -12.609818833653510
20.185266321893529 -28.903405685020989 -18.898362171210170
22.491141407745779 -18.597243222907210 -27.354908738976171
28.171032538022160 -12.595370666053320 -25.450923224105651
12.151282735777510 -29.361250273836550 -24.295333701458560
12.433275296530059 -33.125938711169297 -18.657057092088511
13.774849928245199 -35.673544051808648 -11.732505856418340
5.586546251534679 -35.823103688974733 -16.896617191063068
34.811018836683743 -6.844936987019463 -18.475381853392989
30.390627322354341 -6.844936987022863 -25.090965267011072
-25.033175453325331 -30.493213222232580 -6.595756479691294
-18.413614324557280 -34.892387630936447 -6.592421584807167
18.023365590884708 -35.087640872316292 -6.634431416901712
24.691043913704970 -30.758744612588959 -6.652210891269295
-30.914227976057770 -5.843472242041631 -24.701503400273349
-35.218393206470623 -5.826009164806600 -18.047778993519231
-3.732577845344156 -31.403412821536481 -24.492722495090330
-1.291512405021623 -35.497016162282847 -18.392764031412050
-9.123248139809158 -33.884708893261340 -19.198770169760991
-16.411482980676212 -30.988619269710881 -19.244963797440050
-13.973509312526190 -35.093921628342628 -13.158937330551771
-11.149250513672600 -37.849775508429268 -6.564193505509905
-3.339322917638147 -39.318473965055027 -6.550302049823869
-7.439755176611223 -26.586291213748549 -28.945104799304890
0.348499777207516 -28.296837312039319 -28.269550323168659
-17.605030449184991 -26.065865453005571 -24.710999382905982
-19.556285719867560 -19.112728069161260 -29.193410969431081
-13.556076751255439 -22.886046451658650 -29.874095640864070
3.518053652434975 -39.521168736610967 -5.069561087886499
11.281766721065340 -38.038692823088141 -5.077353384895020
-39.290117102703931 -5.324524985817760 -5.285457517009620
-37.456824790158663 -13.017991090491030 -5.245771062499005
-34.904451541116167 -18.636006015476390 -5.863315771634716
-30.490573579921271 -25.218427602994741 -5.861378799635766
29.986235939478441 -25.791595689262081 -5.968180243296005
34.524901994395421 -19.290349826038231 -5.992785270586433
0.196474828394050 -38.273645208428363 -11.622796975515699
39.206496647338390 -5.605825098733305 -5.605825098730351
37.315002710711013 -5.555463040622391 -13.293883275281470
37.315002710710488 -13.293883275284200 -5.555463040619358
-22.469199183808129 -27.295635491749891 -18.710513102872930
26.686907469394310 -5.827750100121579 -29.220647287892501
20.324062503177750 -5.886351035404923 -33.945298412119037
-37.463846585655027 -5.285535849275577 -12.981650096402481
-9.403643880633323 -19.711198117590751 -33.511790163585921
-20.184038112245421 -12.484952644020590 -32.198299526417337
-20.381338903302911 -4.664552725765420 -34.100482427821532
-15.544120484083731 -7.916998968767844 -35.995852193519703
1.639553342862965 -24.061987077445512 -31.911323572576119
5.369655555974989 -28.686326916920891 -27.354366683559441
20.001978906673550 -13.647295831173651 -31.838217377019031
17.704534745291859 -20.578190375555799 -29.378350187732391
15.544120484093011 -7.916998968777126 -35.995852193513663
-26.789911423188951 -26.960343645861890 -12.467575781507170
11.019783859026569 -20.244470069706910 -32.691370799187638
3.356529740876946 -19.185082747893830 -34.938034253345947
7.735113150868079 -14.681817682759959 -36.395221987320873
-26.724317230232330 -4.619552202628720 -29.401879794632091
-28.037364420723229 -22.126734746669641 -18.008712758633941
-1.691949103770365 -18.473270570723731 -35.438333934935237
-7.735113150859129 -14.681817682750239 -36.395221987326693
-34.889416515931487 -16.113153777999251 -11.094810495781109
-24.432180210328870 -15.887941867510341 -27.397843032208321
34.459725913953747 -12.339248487400020 -16.132890817652012
34.315216044530743 -17.012376007375430 -11.534510819005559
-35.178540789870119 -11.080379945514681 -15.482098617157160
-28.991745753766029 -10.460953143097781 -25.496020609495162
13.375394804741250 -25.157503405575429 -28.074877838534960
-32.584839136376203 -16.667467003128149 -16.137649506325900
-28.378536032311530 -17.071087536530190 -22.432935439122080
-7.903754735266898 -8.089606043002975 -38.367810265724778
-0.000000000000007 -6.726020719000691 -39.430452377831948
7.903754735276406 -8.089606043012886 -38.367810265720728
31.521620666810851 -15.887624063722710 -18.814110703947762
28.964980082399752 -19.054881362480678 -19.948467472988298
28.869173556769070 -16.628566655087511 -22.137333140632752
28.844446259865180 -21.411216061176951 -17.594251225222621
26.061960521107238 -22.066776160165880 -20.828622929187659
31.281236873001170 -20.478342501700620 -14.216948952258839
28.514224054111011 -23.590471215394111 -15.179875620719651
22.904635186355829 -24.806081016887031 -21.448448918196551
23.019293345383488 -22.445097544266520 -23.797681810219320
23.116880488439620 -26.731138835041190 -18.736487997964080
20.008649489328590 -27.042501952095328 -21.641556395440009
25.972869265288921 -26.134337416769000 -15.569405876512350
23.179050590184271 -28.489517604874639 -15.845470324736850
28.493408846848691 -25.265063234945110 -12.239369324170649
23.107175494566029 -30.003653441053601 -12.877855034336260
20.222866326467202 -30.565250375950381 -16.025014085179560
21.189732830798601 -21.896582565472151 -25.913988962445298
24.351358541141121 -19.169792056151191 -25.288937090309190
25.474604389146322 -15.684670372323010 -26.552506020354450
27.257190428511770 -16.196171728018019 -24.387076920641711
23.586537387131880 -15.127558306750929 -28.545265162442970
26.382582369017950 -12.086716501671020 -27.529448980739090
29.822544150137539 -13.042799105742690 -23.248681281596060
8.139813662829191 -31.031935300173579 -23.890633195735099
12.336735282658569 -31.356590102308122 -21.553866222892349
8.292091856262132 -32.967047807981572 -21.081150369618559
16.288181833792230 -29.348379415770911 -21.757014676884669
16.409549028345840 -31.205367179583529 -18.893165147920161
16.018099476532409 -27.341040557754582 -24.410815631847100
16.395335058583392 -32.807590926662947 -15.964175372953941
17.021802492079551 -33.992410036663301 -12.440829122405241
13.162020359552971 -34.551887442791859 -15.261986228150491
9.752381532143545 -36.013032353812143 -14.420557706541221
9.050482504195459 -34.629760359117050 -17.856886440370200
10.408481167291630 -37.045418874249783 -10.922471774026871
6.296003255692977 -37.117562305739689 -13.514689819479230
4.829546392074348 -34.223781824243773 -20.134750277226271
36.056722635892427 -3.439028355021241 -16.973089470234410
34.204489118193742 -3.439521840235288 -20.450490045639739
32.763265229257819 -6.879043680471403 -21.891713934554591
31.983280481096561 -3.439521840236571 -23.774763692010541
33.230065896438973 -10.184925134009459 -19.799746209632222
31.009175947141230 -10.184925134012429 -23.123542906023271
29.479400343238751 -3.439028355023368 -26.816747916354441
-26.782360126707449 -29.525040217215821 -3.313173048308716
-23.737755875264341 -32.024078300791402 -3.313198518657446
-21.831405763063451 -32.855352273090503 -6.626875496982467
-20.415156406506949 -34.238171452468599 -3.311938091529259
-23.052866345331221 -31.179850763295409 -9.817443102754471
-19.725264524547310 -33.385456509743072 -9.814538323608961
-16.936548820315629 -36.085869430649311 -3.311083043974283
16.737267067904028 -36.176853447878329 -3.331530450301932
20.226052967180859 -34.348069712724190 -3.334189228513168
21.463439360285399 -33.086958671344483 -6.676366237781861
23.561332457599281 -32.151234248145478 -3.340909842581159
19.154580447292421 -33.696902899497303 -9.880319443365817
22.517726769595502 -31.544016231267971 -9.895804695134446
26.619597807596310 -29.668560397653650 -3.342673469767968
-29.724680550331460 -2.934117415268982 -26.605154587167160
-32.201902455014022 -2.932243914539082 -23.546535909477431
-33.229741214508323 -5.863578976959247 -21.480285608684738
-34.387240567650537 -2.925651838736318 -20.222714379972022
-31.842873673015731 -8.703510876569739 -22.589382995086300
-33.978839359466512 -8.688289386444900 -19.234137172066209
-36.212814093430673 -2.923177778229010 -16.735801640327750
-7.578605368864909 -30.472008176373549 -24.779454953548420
-6.459909276517820 -32.806553511140770 -21.954488112746240
-10.283483259535000 -31.707128767345871 -22.111261538291089
-2.523889031117893 -33.607927102234939 -21.543842495765809
-5.233855828288739 -34.867239097390701 -18.891329236635968
0.150172781831054 -32.025853841041133 -23.965017490516630
1.376593351412970 -34.079160634927490 -20.897744629422430
-3.947184100673303 -36.573123476567780 -15.710706740182580
-7.879930978569592 -35.753713526346850 -16.111442712612721
-18.723249005972601 -31.430753313692161 -16.172434022962509
-15.264019362236390 -33.196822103500239 -16.278226087959649
-17.498585525828801 -33.493167202007413 -13.115150963924480
-12.829162367488280 -32.593664542424989 -19.314904972000001
-11.604237819153090 -34.656138839577658 -16.257110284467949
-13.946062553069670 -30.256350703583671 -22.137310378646269
-10.317514461233429 -36.365879020335377 -13.079436832427829
-16.273696378425960 -35.166319809519592 -9.924549696096847
-12.619744962836030 -36.641310941979278 -9.907386081054042
-14.852989561595219 -36.547154536919670 -6.610153233515458
-8.899691287171350 -37.754332077020322 -9.767590994918894
-13.291976351340230 -37.582538078089030 -3.297897165968066
-9.518308246165084 -38.710904963916832 -3.296600436583760
-7.280295056509337 -38.775910397581598 -6.589841133273848
-5.599025058348288 -39.469201417797279 -3.291350371843901
-4.973317879487896 -38.472021472824778 -9.755490889595187
-1.676819201290520 -39.829253403451567 -3.289191408648162
-9.423916690642441 -27.999721718948550 -26.966744469849740
-5.611108764094404 -29.124314133869170 -26.838213690596309
-3.563500957336028 -27.579895241072069 -28.751535069478550
-1.697427695471608 -29.945189195682950 -26.465152799224470
-5.409799213344076 -25.009212236998369 -30.745297285747171
-1.505569211601323 -25.900144446883051 -30.445290414324688
2.199537786334665 -30.447426321300611 -25.847943697098160
-14.533541120463690 -27.760281327782678 -24.862479613567341
-15.645671008898820 -24.578250830129331 -27.406614060212721
-12.522500937407930 -26.208731580946651 -27.500714329329821
-18.686427021890101 -22.717884559392100 -27.105628488094670
-16.622156389252279 -21.083068260406591 -29.651443120549391
-20.540872592945160 -24.170611455143039 -24.369120304963872
-21.524442959315358 -20.684604331557129 -26.624151223485171
-17.429899377932308 -17.386211510965381 -31.526468029324651
-14.439337236025731 -19.309591469427119 -31.916220749033680
1.764314797885609 -39.880111860651553 -2.542400579920842
5.680460429266777 -39.512815070322837 -2.543569138612539
7.436293556569392 -38.970601278209600 -5.098402062237991
9.572124120677509 -38.754221320420498 -2.546507235235829
5.250704016355135 -38.925321381169617 -7.566332806465153
9.147719475297608 -38.196424823860660 -7.573129373602573
13.339606088882981 -37.624010990634517 -2.547280079407895
-39.822133160365013 -2.674153515060645 -2.654532533035757
-39.365731495513067 -6.581618573552284 -2.649794370954443
-38.562383097510320 -9.216408034788966 -5.291536847649025
-38.518620057755143 -10.458181026757639 -2.634822174411304
-38.408682322308628 -7.927543868776569 -7.869377351830276
-37.417870707976647 -11.769418180200560 -7.834773564922410
-37.302328745072238 -14.199331072007050 -2.629676165422653
-36.070040337448148 -17.037907315653779 -2.943099351186535
-34.215404429239598 -20.509602695845611 -2.943166056313126
-32.859152554892589 -22.035613898926091 -5.891327770940167
-32.002424500771582 -23.815684590033449 -2.942434878354592
-33.467476681397059 -20.089207658147391 -8.737944247983982
-31.249363218485719 -23.391345850011209 -8.736255902685922
-29.499695253269941 -26.853551282029549 -2.941885949609844
29.237602521324611 -27.132914719739421 -2.994572932703542
31.769448252246569 -24.118755074159250 -2.997956112661599
32.415166661050350 -22.652503491424600 -6.010073655141505
34.014612301127279 -20.831767724300551 -3.007246733756723
30.524929541381692 -24.269704383200001 -8.900003094306522
32.835718385297469 -21.029106545864721 -8.921446375841027
35.902203332539408 -17.377332854518141 -3.009988067281996
-3.196259172885513 -37.928607057900081 -12.296528915920019
-1.576274083602964 -38.915799641595306 -9.114594214855183
1.865374992836782 -39.067273613441273 -8.382627152719733
0.089711263455951 -39.572399034907093 -5.832419390286828
3.587725001350510 -38.329630968626233 -10.861286689730310
39.801129134377732 -2.816917558386785 -2.816917558385300
39.330515926262692 -2.810885728124725 -6.723791179856866
38.449515120393940 -5.608177057133008 -9.496476532659086
38.468080733466763 -2.791874788256813 -10.602458643309079
38.222014384568872 -8.338991120596768 -8.338991120592372
37.188198888656217 -8.295094015727047 -12.174941811807461
37.237187675327903 -2.785368380208033 -14.339927003016600
37.237187675327533 -14.339927003017880 -2.785368380206478
38.468080733466508 -10.602458643310420 -2.791874788255277
38.449515120393663 -9.496476532661948 -5.608177057129992
39.330515926262557 -6.723791179858292 -2.810885728123219
37.188198888655833 -12.174941811811710 -8.295094015722571
-21.756669098801730 -29.562418783822771 -15.896876259442561
-19.517680170927878 -29.258062876123851 -19.053237176791029
-20.133575430208090 -26.809194192365311 -21.815273928719449
-17.082534525048750 -28.651825446316629 -22.073962993246599
-22.991266876076011 -24.797478041454941 -21.365548428474980
27.566232803342160 -2.922424469555676 -28.836819756772499
24.590086233293821 -2.929987911374103 -31.412461847350890
23.621686029978619 -5.886005315530920 -31.739105531812871
21.338090797670301 -2.952120541948184 -33.704165838202933
25.651439474204839 -8.698978096455120 -29.433507477218878
22.516462394553312 -8.750040925586905 -31.881744533010121
17.912345749306869 -2.959141558997046 -35.642548736362897
14.717770448929420 -36.725873872335320 -5.881951271375601
12.583581639309450 -37.018722978982218 -8.442011109037242
15.954525742334191 -35.503915172561634 -9.215478565416063
-37.307587836585043 -2.649733552303831 -14.181774619214160
-38.522196230720539 -2.654798449120486 -10.439941196640310
-38.565960595404867 -5.331153837767450 -9.178529922849041
-39.367616879076330 -2.669508178229949 -6.562346895854202
-37.423135185762803 -7.893548880636370 -11.713273170639670
-12.332055442955451 -17.685366369828429 -33.691959787903620
-11.516406584315870 -21.366426695526421 -31.793837753286748
-8.469460608038466 -23.280025653385280 -31.405550019375681
-10.540795704529589 -24.837206077289579 -29.529726541614291
-6.400520072623979 -21.580423777835861 -33.065368314928143
2.155896143805269 -35.799198995343382 -17.713536985645490
2.905818603485230 -37.231700944534992 -14.330268401298371
-0.549919453049075 -37.047059039733909 -15.073583997660540
-17.723735347818931 -14.041975723771460 -32.995333799287238
-17.943905996660220 -10.246559472166570 -34.249440666955053
-15.430231791951950 -11.776724190115250 -34.974514201479479
-20.386181549439179 -8.618505624082726 -33.318536763697473
-18.015685696538590 -6.309321711361203 -35.151492967710219
-22.529384269558399 -10.856822495012899 -31.217882362185559
-22.662626998355300 -6.945971629862136 -32.220470901019873
-17.922432642752259 -2.342483435452599 -35.683316955596183
-15.503018931412591 -3.978333442658258 -36.658275961427719
2.864948156082721 -28.550083335119680 -27.869064265841072
4.712470911776190 -30.587137118180081 -25.342051816145691
0.996588538905701 -26.246886348432490 -30.167991277668609
3.520056220511440 -26.490440430180850 -29.763496089209308
-0.855212350538196 -23.717709012185271 -32.198428851136377
4.127735396519564 -24.309644038460601 -31.496078115418690
5.999675171244015 -26.640392900462889 -29.228296108076918
17.623647783927058 -14.617509767738021 -32.798405089440948
18.941311448353080 -17.192668611492930 -30.751240561394820
16.497975840710190 -18.119406938198509 -31.614930251389239
21.331384353644999 -16.186635643118809 -29.714723581869048
20.146579470764220 -19.635221044376870 -28.435424378748792
22.286304044050841 -12.612941866354070 -30.728395320370950
18.772736126545500 -22.876159225244120 -26.912183985274609
17.977932660790341 -6.918546639415022 -35.056063371052190
15.503018931417440 -3.978333442662970 -36.658275961425161
20.265839015693111 -9.816627889757942 -33.059484498354443
17.871043278988221 -10.841595906607029 -34.104039932994318
15.430231791965189 -11.776724190128780 -34.974514201469077
-27.888852773143750 -27.983228362239760 -6.257056085536683
-28.776287025367150 -26.213313277751460 -9.208009636672038
-26.013450666857121 -28.839757669876821 -9.569153117108709
-29.410732198762730 -24.281126897728608 -12.059669876989220
-23.931107630313139 -29.400063374875138 -12.764728378331959
25.389752626188720 -29.358676163612689 -9.665843208637442
28.087951828890951 -26.905421845094072 -9.336228726222148
27.452935203211251 -28.393380800853329 -6.336576746076567
13.132574832449020 -17.938349834575671 -33.252834659851260
9.418338302341482 -17.539290859561341 -34.693920349237779
11.506164711712980 -15.176081020858220 -35.175199614333067
7.224879854867917 -19.815495805562151 -33.987456016821447
5.563922679465510 -16.988719996526068 -35.783041887596198
8.837448969506962 -22.422831017907519 -31.923597452145401
4.999152129636279 -21.915391298059401 -33.086614085919933
1.685417651449921 -16.291934209118651 -36.492905837968429
3.886934866638475 -14.041162111074820 -37.252348024600103
-21.345237425603798 -2.337002163200048 -33.747876815685771
-23.668330785879071 -4.664817020553219 -31.906888431933719
-24.582271811064800 -2.320035863780976 -31.469497543345032
-25.785824832807879 -6.906720380754980 -29.789064784022880
-27.558220358507121 -2.314304775386020 -28.899626528927481
